# .PCD v0.7 - Point Cloud Data file format
VERSION 0.7
FIELDS x y z intensity
SIZE 4 4 4 4
TYPE F F F F
COUNT 1 1 1 1
WIDTH 1441
HEIGHT 1
VIEWPOINT 0 0 0 1 0 0 0
POINTS 1441
DATA ascii
-16.202337 -12.074819 0.35210228 24
nan nan nan 0
-15.22365 -11.337331 -0.99294388 25
-15.065672 -16.296949 -0.38678896 31
-8.0569668 -5.9947362 -1.227001 26
-9.1728735 -9.9164419 -1.1764297 26
-5.3682022 -3.9891732 -1.2920467 34
-5.5215721 -5.9727154 -1.2813491 33
-3.9943905 -2.9635069 -1.3214884 26
-3.9597666 -4.2888341 -1.3385708 29
nan nan nan 0
-19.307798 -20.93145 7.610352 1
-18.263578 -13.531519 3.5905118 15
-17.950283 -19.391333 5.1248169 1
-18.98138 -14.052979 2.0631943 9
nan nan nan 0
-16.250328 -12.02697 0.3522768 29
nan nan nan 0
-15.24711 -11.276393 -0.992028 24
-15.144604 -16.268051 -0.38735613 24
-8.0608349 -5.9561915 -1.2245671 25
-9.2006178 -9.8804989 -1.1757774 25
-5.3781438 -3.9674978 -1.2910936 33
-5.5491133 -5.960638 -1.2829118 33
-3.9969304 -2.9438205 -1.3189037 28
-3.9723098 -4.2738934 -1.3380089 28
-18.649632 -13.711935 5.3318048 1
-19.308435 -20.786058 7.5819187 1
-18.3664 -13.508644 3.6014502 14
-17.982725 -19.290854 5.1148086 1
-19.041924 -14.000283 2.0647194 45
-17.497725 -18.711416 3.1367171 10
-16.318399 -11.98941 0.352844 23
nan nan nan 0
-15.280342 -11.218672 -0.9916355 26
-15.195048 -16.21409 -0.38726887 24
-8.0815763 -5.9280181 -1.2245671 25
-9.2026939 -9.8137941 -1.1716458 28
-5.3959208 -3.9515991 -1.2920467 30
-5.5749493 -5.9466386 -1.2840836 35
-4.0105705 -2.9333999 -1.3201962 28
-3.9805515 -4.2528825 -1.335761 28
-18.715092 -13.659677 5.3368626 1
-19.319843 -20.653269 7.5580096 1
-18.411449 -13.442996 3.6010597 13
-17.930719 -19.100904 5.0809703 1
-19.078608 -13.924921 2.0634122 49
-17.511904 -18.596018 3.1275897 11
-16.362171 -11.933849 0.35288763 33
-17.56135 -18.615986 1.3394079 28
-15.305285 -11.154972 -0.99071968 28
-15.303011 -16.2155 -0.38857779 24
-8.0901823 -5.8910098 -1.2227416 25
-9.2351856 -9.7797995 -1.1714283 28
-5.4076958 -3.9312971 -1.2915701 31
-5.6024499 -5.934329 -1.2856463 36
-4.0207858 -2.9193823 -1.3201962 28
-3.9953728 -4.2389617 -1.335761 28
-18.697557 -13.547105 5.3183184 1
-19.289167 -20.476696 7.5179448 1
-18.474257 -13.390238 3.6041849 14
nan nan nan 0
-19.117016 -13.850935 2.0623229 44
-17.530619 -18.486153 3.1193755 11
-16.480671 -11.932359 0.35454559 25
-17.57637 -18.502071 1.3356135 25
-15.34413 -11.101479 -0.99071968 30
-15.398501 -16.197353 -0.38949406 26
-8.0966167 -5.852561 -1.2206119 25
-9.2366495 -9.7097836 -1.1670792 26
-5.4174051 -3.9095259 -1.290617 31
-5.6044259 -5.89504 -1.2813491 36
-4.0353785 -2.9074473 -1.3214884 30
-4.0075307 -4.2207537 -1.3346372 28
-18.722977 -13.466111 5.3121367 1
-19.327291 -20.374191 7.5050206 1
-18.552959 -13.348741 3.6104355 14
nan nan nan 0
-19.157543 -13.773506 2.0612333 40
-17.569338 -18.397924 3.1148117 10
-16.443089 -11.813542 0.3528004 26
-17.607824 -18.399643 1.3328658 26
-15.372546 -11.03643 -0.98993456 28
nan nan nan 0
-8.1159973 -5.8214002 -1.2203077 28
-9.2842655 -9.6918755 -1.1688188 25
-5.4350095 -3.8934486 -1.2915701 33
-5.6215563 -5.8718715 -1.2805678 34
-4.0435376 -2.8919399 -1.3208423 28
-4.0087829 -4.1926427 -1.3301415 26
-18.702803 -13.347875 5.2924685 1
-19.366804 -20.266546 7.4914503 1
-18.641954 -13.309343 3.6182485 18
-17.436749 -18.182568 4.8855662 1
-19.185232 -13.692084 2.0590544 38
-17.709118 -18.415195 3.1281984 11
-16.626692 -11.857656 0.35585454 15
-17.727367 -18.395603 1.3370527 29
-15.41301 -10.984151 -0.9900654 29
nan nan nan 0
-8.1160517 -5.7786455 -1.2172652 25
-9.2679129 -9.6074095 -1.1625127 25
-5.4445667 -3.8716102 -1.290617 31
-5.6300287 -5.8397627 -1.2778331 36
-4.0476985 -2.8736155 -1.3189037 28
-4.0233936 -4.1786242 -1.3301415 26
-18.709198 -13.25902 5.2817912 1
-19.336813 -20.101248 7.4539704 2
-18.72628 -13.276011 3.6260617 21
-17.469681 -18.096388 4.8779411 3
-19.224779 -13.619274 2.058183 35
-17.804358 -18.385359 3.1336749 6
nan nan nan 0
-17.845629 -18.395863 1.3413705 20
-15.422856 -10.914235 -0.98836452 28
nan nan nan 0
-8.1189575 -5.7402434 -1.2148314 24
-9.2875805 -9.5641127 -1.1609905 25
-5.4620581 -3.8554103 -1.2915701 33
-5.6435022 -5.8129835 -1.2762705 33
-4.0616541 -2.8622501 -1.3201962 28
-4.0321455 -4.160007 -1.3284556 29
-18.713524 -13.164204 5.2699904 1
-19.383341 -20.009338 7.4449239 3
-18.800777 -13.230456 3.6315308 21
-17.464327 -17.964897 4.8588772 4
-19.255577 -13.545418 2.0566576 34
nan nan nan 0
nan nan nan 0
nan nan nan 0
-15.397524 -10.815852 -0.98430842 29
-15.009015 -15.35769 -0.3742232 34
-8.1145678 -5.694767 -1.2111804 25
-9.3243895 -9.5351982 -1.1614255 28
-5.4774938 -3.8377287 -1.2920467 31
-5.6672101 -5.796782 -1.2770518 35
-4.073103 -2.8501492 -1.3208423 28
-4.0500431 -4.1493964 -1.3295796 28
-18.715418 -13.068122 5.2576275 1
nan nan nan 0
-18.899485 -13.201509 3.6416879 26
-17.602455 -17.981005 4.8798475 9
-19.296616 -13.473843 2.056004 9
nan nan nan 0
-19.316645 -13.477792 0.41052419 65
nan nan nan 0
-15.478194 -10.792021 -0.98705608 31
-15.027472 -15.269566 -0.37335059 36
-8.146616 -5.6749158 -1.2130059 29
-9.3960476 -9.5416441 -1.1662093 28
-5.4948874 -3.8213868 -1.2929999 31
-5.6787529 -5.7681613 -1.2750986 36
-4.0869942 -2.8386679 -1.3221346 28
-4.0662084 -4.1369724 -1.3301415 26
-18.697104 -12.953663 5.2390828 9
nan nan nan 0
-19.002541 -13.170124 3.6522355 29
-17.540747 -17.787037 4.8445797 9
-19.335632 -13.395936 2.0549145 34
-17.629566 -17.82732 3.0697844 10
-19.363857 -13.405479 0.41048056 18
-17.682035 -17.843004 1.3146791 35
-15.56487 -10.767881 -0.9900654 30
-15.083337 -15.214385 -0.37335059 31
-8.1551113 -5.6365552 -1.2111804 28
-9.4221897 -9.4982986 -1.1651222 26
-5.5142536 -3.8063636 -1.2944298 33
-5.6988535 -5.7483034 -1.2750986 35
-4.1033387 -2.8277781 -1.3240733 24
-4.0710683 -4.1116467 -1.3267697 25
-18.745981 -12.895733 5.2407684 8
nan nan nan 0
-19.088833 -13.13643 3.6604393 33
-17.518387 -17.646896 4.8221798 9
-19.367908 -13.318484 2.0533893 50
-17.64617 -17.719948 3.0618742 10
-19.389666 -13.328452 0.41008788 9
-17.698799 -17.741844 1.3115391 39
-15.701332 -10.785462 -0.99647653 30
-15.171664 -15.197027 -0.3742232 30
-8.2064962 -5.6319399 -1.2160482 28
-9.4483576 -9.4617119 -1.1644697 28
-5.5153556 -3.7787724 -1.2915701 31
-5.7171402 -5.7266278 -1.274708 35
-4.107203 -2.8093491 -1.3221346 25
-4.0829625 -4.0963969 -1.3262079 25
-18.806976 -12.841208 5.2452641 1
nan nan nan 0
-19.210018 -13.121243 3.6748936 33
-17.534777 -17.540504 4.8097882 9
-19.407854 -13.251376 2.0529535 35
-17.653456 -17.603916 3.0524423 10
-19.419552 -13.249417 0.40973884 11
-17.70755 -17.627106 1.3076137 36
-15.800773 -10.772774 -1.0004017 34
-15.359279 -15.277978 -0.37753916 21
-8.2138004 -5.5948811 -1.2142229 28
-9.4776773 -9.4217501 -1.1638174 28
-5.538662 -3.7663946 -1.2939531 31
-5.7423449 -5.711864 -1.2758799 34
-4.112987 -2.792284 -1.3208423 24
-4.0927753 -4.0762439 -1.324522 28
-18.781101 -12.727653 5.225596 1
nan nan nan 0
-19.310888 -13.091514 3.685441 31
-17.53845 -17.422102 4.7940602 10
-19.44186 -13.170378 2.0514283 20
-17.670727 -17.498528 3.0448365 10
-19.463846 -13.175352 0.40965158 10
-17.715223 -17.505922 1.3034269 34
-15.891852 -10.749753 -1.0036727 29
-15.375178 -15.187375 -0.37662292 20
-8.2404203 -5.5689054 -1.2151356 29
-9.5140505 -9.3921099 -1.1642523 26
-5.5456715 -3.7429211 -1.2925233 33
-5.7569804 -5.6865749 -1.274708 35
-4.1267152 -2.7806075 -1.3221346 28
-4.1069794 -4.0619326 -1.324522 25
-18.789211 -12.63291 5.2149186 1
nan nan nan 0
-19.364889 -13.024781 3.6866131 34
-17.548029 -17.304276 4.7792864 10
-19.487715 -13.102431 2.0514283 15
-17.685204 -17.384928 3.0363178 9
-19.495192 -13.097573 0.40934616 11
-17.726337 -17.395006 1.2997634 34
-16.070238 -10.788828 -1.0125699 23
-15.33711 -15.044323 -0.37439772 33
-8.2577486 -5.5387254 -1.2148314 29
-9.6001139 -9.4111643 -1.170776 26
-5.5552735 -3.7198403 -1.2915701 34
-5.7777834 -5.6654372 -1.274708 35
-4.1283641 -2.760819 -1.3195499 29
-4.1089764 -4.0356131 -1.3205884 26
-18.821037 -12.559136 5.2115474 1
nan nan nan 0
-19.445152 -12.98041 3.6932545 33
-17.553978 -17.189676 4.7645121 10
-19.514685 -13.021888 2.0494673 26
-17.694296 -17.272812 3.0274947 9
-19.530392 -13.022511 0.40912801 11
-17.740469 -17.287712 1.2963616 33
-16.170132 -10.774189 -1.016495 18
-15.527376 -15.125025 -0.37775734 24
-8.2728996 -5.5071168 -1.2142229 30
-9.6614494 -9.4054012 -1.1742553 29
-5.5580025 -3.6936374 -1.2891872 33
-5.7798429 -5.6279969 -1.2708013 35
-4.1440139 -2.7503951 -1.3214884 25
-4.1230388 -4.021246 -1.3205884 26
-18.799765 -12.450325 5.1935649 1
nan nan nan 0
-19.500637 -12.919273 3.6952076 34
-17.562862 -17.078672 4.7506905 11
-19.553793 -12.949565 2.0488136 21
-17.708733 -17.172575 3.0201931 9
-19.573645 -12.952876 0.40908438 18
-17.764832 -17.190954 1.2937448 30
-16.313854 -10.7879 -1.0231678 16
-15.551336 -15.042918 -0.37705922 26
-8.2982845 -5.4823079 -1.2151356 30
-9.6691618 -9.3473778 -1.1712109 28
-5.568172 -3.6738348 -1.2887106 33
-5.8002486 -5.6105175 -1.2711921 34
-4.1313992 -2.7213089 -1.3143803 31
-4.1440434 -4.0136137 -1.322836 26
-18.836878 -12.385238 5.192441 1
nan nan nan 0
-19.533056 -12.847752 3.6932545 36
-17.580572 -16.982819 4.7402053 10
-19.594713 -12.878495 2.0483778 41
-17.722103 -17.065893 3.0122826 9
-19.610226 -12.88378 0.40895349 90
-17.767756 -17.080034 1.2898196 33
-16.378759 -10.752921 -1.0249996 14
-15.679448 -15.061287 -0.37889171 24
-8.3081179 -5.4493175 -1.2139186 31
-9.6731691 -9.2893772 -1.1679491 26
-5.5789084 -3.6530321 -1.288234 33
-5.8091183 -5.579967 -1.2688481 34
-4.1610928 -2.7200773 -1.3208423 25
-4.1520686 -3.9947786 -1.3211503 26
-18.849392 -12.299444 5.1840115 1
nan nan nan 0
-19.563311 -12.770043 3.6905198 34
-17.59725 -16.880566 4.7287674 10
-19.622711 -12.803921 2.0468526 28
-17.729568 -16.954187 3.0034599 9
-19.652983 -12.813885 0.40890989 26
-17.780323 -16.97308 1.2864177 31
-16.38063 -10.672519 -1.0227754 9
-15.768094 -15.040977 -0.37976435 25
-8.3333292 -5.4243436 -1.2148314 31
-9.6981411 -9.2452641 -1.1668618 26
-5.5895677 -3.6321995 -1.2877574 33
-5.8267741 -5.5579495 -1.2684574 36
-4.1786685 -2.7107899 -1.3234271 24
-4.1719632 -3.984585 -1.322836 25
-18.851311 -12.207094 5.1727724 2
nan nan nan 0
-19.616056 -12.707046 3.6920822 36
-17.613428 -16.778402 4.7173285 10
-19.671598 -12.733266 2.0470705 33
-17.750858 -16.856304 2.9970708 9
-19.689322 -12.734979 0.4086917 14
-17.788057 -16.85627 1.2824925 31
-16.260275 -10.50943 -1.0128316 8
-15.775143 -14.94286 -0.37867358 31
-8.3552389 -5.3951101 -1.2151356 30
-9.7430105 -9.2233458 -1.168384 25
-5.6084008 -3.6166546 -1.2891872 31
-5.8335977 -5.5256834 -1.2657228 35
-4.2063856 -2.7079456 -1.3292429 23
-4.1893787 -3.9733536 -1.3239601 26
-18.832384 -12.097111 5.1553521 1
-19.57354 -18.574669 7.2109976 3
-19.656265 -12.63106 3.6909103 36
-17.628452 -16.669884 4.7049375 9
-19.711737 -12.661832 2.0466347 49
-17.751829 -16.73975 2.987335 9
-19.72945 -12.663474 0.40860444 15
-17.804979 -16.754717 1.2794833 31
-16.208593 -10.396006 -1.0073363 4
nan nan nan 0
-8.3719311 -5.364573 -1.2148314 29
-9.8114271 -9.2234087 -1.1727331 31
-5.614789 -3.5930889 -1.2877574 33
-5.8582435 -5.510365 -1.2668948 38
-4.2280269 -2.7010422 -1.3331201 23
-4.2067666 -3.9620488 -1.325084 25
-18.83337 -12.00971 5.1446748 1
-19.601645 -18.478178 7.1987195 1
-19.698044 -12.565807 3.6909103 39
-17.658596 -16.587805 4.6982651 10
-19.745312 -12.586254 2.0455453 46
-17.781179 -16.650541 2.9824674 10
-19.762899 -12.592607 0.40842992 15
-17.820326 -16.658068 1.2766048 31
-16.25351 -10.348904 -1.0079905 4
nan nan nan 0
-8.3875809 -5.3354497 -1.2145271 28
-9.791008 -9.1432095 -1.1666443 30
-5.6293688 -3.5747826 -1.288234 31
-5.8684249 -5.4814501 -1.2649416 36
-4.2639527 -2.7030666 -1.3415209 25
-4.2163272 -3.9447455 -1.3239601 26
-18.836063 -11.919151 5.1339979 1
-19.600803 -18.348564 7.1748099 1
-19.731354 -12.49037 3.6889572 41
-17.675123 -16.487555 4.6873035 10
-19.776419 -12.514049 2.0444558 49
-17.790136 -16.542738 2.9742527 9
-19.789833 -12.512859 0.40808088 20
-17.832628 -16.553289 1.2733338 33
-16.281092 -10.286771 -1.0074672 6
nan nan nan 0
-8.3935623 -5.2981949 -1.2127017 26
-9.8354092 -9.1174259 -1.1679491 28
-5.63766 -3.5524952 -1.2872808 29
-5.8820944 -5.4558902 -1.2637695 35
-4.2692719 -2.6855958 -1.3402284 25
-4.2307572 -3.9292657 -1.3239601 24
-18.807405 -11.809291 5.1148911 1
-19.608137 -18.227406 7.1541314 1
-19.776922 -12.42273 3.6893475 43
-17.698366 -16.394064 4.6782479 10
-19.817934 -12.438834 2.0440199 46
-17.796736 -16.433395 2.965734 9
-19.835562 -12.440242 0.40808088 25
-17.83811 -16.437056 1.2694086 33
-16.297531 -10.213774 -1.0061587 4
nan nan nan 0
-8.4360619 -5.2818751 -1.2160482 24
-9.8873253 -9.1015987 -1.170341 28
-5.6583505 -3.5379965 -1.2891872 33
-5.8938417 -5.4286289 -1.2622069 36
-4.2622275 -2.6604531 -1.3350588 26
-4.249815 -3.9194326 -1.3256459 25
-18.840225 -11.733842 5.112082 2
-19.658842 -18.140673 7.1483154 1
-19.820229 -12.348856 3.6889572 45
-17.720406 -16.294195 4.6682396 10
-19.852774 -12.364315 2.0431485 41
-17.824736 -16.344334 2.9608662 10
-19.86401 -12.361683 0.40777546 36
-17.878803 -16.359518 1.268231 38
-16.320362 -10.148912 -1.0053736 6
nan nan nan 0
-8.4586639 -5.2550139 -1.2166568 26
-9.8951454 -9.0451765 -1.1675141 28
-5.6769233 -3.5221033 -1.290617 33
-5.9054713 -5.4013529 -1.2606444 38
-4.2571125 -2.6366632 -1.3305354 26
-4.2616754 -3.9029269 -1.325084 25
-18.82723 -11.639282 5.098033 2
-19.665493 -18.026419 7.1289296 1
-19.852671 -12.277868 3.6873946 43
-17.745354 -16.208857 4.6606145 10
-19.891577 -12.292323 2.0427127 45
-17.868837 -16.270317 2.9587367 10
-19.890009 -12.28655 0.40747005 94
-17.910789 -16.279985 1.2666609 39
-16.339054 -10.085559 -1.0044578 6
-17.94199 -16.296919 -0.42247909 45
-8.4908304 -5.2360492 -1.2187865 28
-9.928772 -9.0156641 -1.1679491 26
-5.6808224 -3.4971218 -1.2887106 33
-5.926116 -5.3823671 -1.261035 36
-4.2683487 -2.6230507 -1.3311816 26
-4.2817969 -3.8953364 -1.3273317 28
-18.867743 -11.573491 5.098033 10
-19.674725 -17.908882 7.1095433 1
-19.88488 -12.202038 3.685441 44
-17.758205 -16.107233 4.6491756 11
-19.919491 -12.218479 2.0414052 45
-17.918161 -16.201185 2.9575195 10
-19.917854 -12.207902 0.40716463 103
-17.947124 -16.198961 1.2652217 43
-16.367773 -10.024552 -1.0040653 6
-17.984802 -16.227283 -0.42221731 39
-8.5111732 -5.207674 -1.2190907 28
-9.9860697 -9.0043097 -1.1709934 28
-5.6971841 -3.4798281 -1.2896638 34
-5.9448681 -5.3616481 -1.261035 36
-4.2625875 -2.6000843 -1.326658 29
-4.2935619 -3.878732 -1.3267697 25
nan nan nan 0
-19.645761 -17.75749 7.0765867 1
-19.931572 -12.135119 3.6862226 43
-17.77968 -16.013933 4.640121 11
-19.959894 -12.14758 2.0411875 44
-17.948759 -16.115328 2.9532602 11
-19.964617 -12.1409 0.40725186 131
-17.994267 -16.12788 1.2645675 36
-16.38773 -9.9582834 -1.0031494 6
-18.026443 -16.15106 -0.42186826 40
-8.5483913 -5.1895185 -1.2218289 28
-10.010019 -8.9627485 -1.1701236 26
-5.7113957 -3.4611912 -1.2901404 34
-5.9580321 -5.3359189 -1.259863 35
-4.2737041 -2.5864384 -1.3273042 26
-4.3052635 -3.8620927 -1.3262079 26
nan nan nan 0
-19.684267 -17.66783 7.0681863 2
-19.963242 -12.05909 3.6842692 48
-17.797064 -15.917409 4.6301122 11
-19.989382 -12.070108 2.03988 44
-17.993792 -16.042667 2.9514346 10
-19.998316 -12.065971 0.40707734 133
-18.029942 -16.046709 1.2631283 38
-16.420252 -9.8997288 -1.0030185 6
-18.059376 -16.061619 -0.42125744 39
-8.5664539 -5.1596475 -1.2218289 30
-10.074439 -8.9541378 -1.1738204 25
-5.7192354 -3.4387057 -1.2891872 31
-5.9821539 -5.320015 -1.261035 34
-4.2727995 -2.5645473 -1.3240733 23
-4.3175716 -3.844666 -1.3256459 29
-18.348415 -10.992249 4.926075 3
-19.704357 -17.562046 7.0533233 2
-20.000977 -11.986794 3.6834881 44
-17.817657 -15.824219 4.621057 13
-20.031351 -11.995484 2.0396624 44
-18.029249 -15.96166 2.9480882 11
-20.04026 -11.991311 0.40703374 104
-18.073671 -15.967293 1.2620815 39
-16.432856 -9.8253889 -1.0015793 6
-18.100346 -15.985244 -0.42090839 40
-8.6023521 -5.138391 -1.2242627 30
-10.124301 -8.9354029 -1.1759949 28
-5.7396364 -3.4237478 -1.2910936 33
-6.0006886 -5.2991009 -1.261035 34
-4.2775741 -2.5471473 -1.3227808 23
-4.3291416 -3.827956 -1.325084 30
-18.359257 -10.907507 4.9182081 3
-19.723381 -17.449694 7.037168 2
-20.036285 -11.90836 3.6819253 46
-17.836887 -15.724719 4.6110487 13
-20.068819 -11.922943 2.0392265 48
-18.0774 -15.892076 2.9468713 10
-20.090593 -11.926386 0.40720823 96
-18.106779 -15.884345 1.2605114 39
-16.464905 -9.766695 -1.0014485 4
-18.135365 -15.903832 -0.42042845 40
-8.6181011 -5.1070676 -1.2239586 28
-10.149813 -8.8950815 -1.1753426 28
-5.7431026 -3.3986945 -1.2891872 31
-6.0247154 -5.2830091 -1.2622069 35
-4.284359 -2.5309727 -1.3221346 25
-4.3443069 -3.8144305 -1.3256459 28
-18.353357 -10.821824 4.9069691 4
-19.67594 -17.29171 6.9996886 3
-20.073538 -11.840597 3.6815345 48
-17.84832 -15.629906 4.6005635 11
-20.106024 -11.850291 2.0387907 46
-18.114073 -15.812554 2.9438286 10
-20.114956 -11.850817 0.40690282 104
-18.146179 -15.812731 1.2595955 41
-16.486443 -9.7057095 -1.0007943 6
-18.185114 -15.835504 -0.42029753 40
-8.6307116 -5.0759459 -1.22335 28
-10.173619 -8.8564682 -1.1746901 26
-5.7612815 -3.3823526 -1.290617 33
-6.0431199 -5.2619467 -1.2622069 34
-4.2931681 -2.5160019 -1.3221346 28
-4.3587666 -3.8016055 -1.3262079 29
-18.336348 -10.725718 4.8923583 6
-19.717987 -17.207039 6.993227 3
-20.110487 -11.767962 3.6807535 49
-17.850927 -15.522408 4.5872188 15
-20.143059 -11.782293 2.0385728 46
-18.157911 -15.739473 2.9420033 11
-20.143253 -11.772964 0.40664104 171
-18.178617 -15.729685 1.2580255 40
-16.498663 -9.6355143 -0.99948591 6
nan nan nan 0
-8.6548071 -5.0495381 -1.2242627 30
-10.185637 -8.8046064 -1.1725155 28
-5.7772946 -3.3646898 -1.2915701 34
-6.0633183 -5.2424369 -1.2625977 34
-4.3056641 -2.504178 -1.3234271 28
-4.3646493 -3.7799823 -1.3239601 26
-18.331535 -10.637199 4.8811193 9
nan nan nan 0
-20.151442 -11.697691 3.6807535 48
-17.865997 -15.426312 4.5772104 18
-20.175446 -11.706909 2.0377011 48
-18.192057 -15.658185 2.9386566 11
-20.18206 -11.701326 0.40659741 177
-18.222052 -15.656368 1.2572404 41
-16.525715 -9.57411 -0.99909341 6
nan nan nan 0
-8.6637888 -5.0143266 -1.2230459 28
-10.229532 -8.7803574 -1.1740377 26
-5.7805033 -3.3395948 -1.2896638 34
-6.0740905 -5.2148013 -1.261035 33
-4.3122869 -2.4879272 -1.3227808 26
-4.3759723 -3.7631342 -1.323398 28
-18.418964 -10.597876 4.8940439 10
nan nan nan 0
-20.181337 -11.616364 3.6784093 45
-17.877705 -15.322389 4.5657716 14
-20.211744 -11.629159 2.0370476 46
-18.2334 -15.583301 2.936527 10
-20.235649 -11.633505 0.40681556 105
-18.264116 -15.576513 1.2561936 40
-16.528221 -9.4948244 -0.99713075 6
-15.314578 -13.05542 -0.35066244 33
-8.6907196 -4.9874773 -1.2242627 28
-10.255961 -8.737958 -1.1733854 28
-5.7985144 -3.3230557 -1.2910936 34
-6.0828652 -5.1855521 -1.2590817 34
-4.3213763 -2.4721053 -1.3227808 29
-4.3860316 -3.7439041 -1.3222741 29
-18.40535 -10.508962 4.8811193 11
nan nan nan 0
-20.213314 -11.545702 3.6772375 50
-17.885445 -15.226422 4.5548105 13
-20.263029 -11.564708 2.0381372 45
-18.263096 -15.498681 2.9325719 11
-20.300173 -11.581198 0.40733916 60
-18.298531 -15.501335 1.2550162 41
-16.572628 -9.4473801 -0.9979158 6
-15.369595 -13.00996 -0.35088062 30
-8.6813326 -4.9439001 -1.2206119 28
-10.296285 -8.7135582 -1.1746901 25
-5.8228822 -3.3100681 -1.2939531 31
-6.0990448 -5.1626906 -1.258691 35
-4.3257771 -2.4546235 -1.3214884 28
-4.4039936 -3.7340696 -1.3239601 29
-18.412241 -10.427848 4.8732519 13
nan nan nan 0
-20.29002 -11.495764 3.6838784 30
-17.897261 -15.129033 4.5443254 13
-20.301268 -11.497449 2.0381372 38
-18.301905 -15.42204 2.9301379 10
-20.340475 -11.510266 0.40733916 55
-18.333426 -15.421293 1.2537078 43
-16.594641 -9.3833303 -0.99726164 4
-15.323082 -12.879011 -0.34878629 30
-8.7331095 -4.9330864 -1.2254797 28
-10.299555 -8.6517239 -1.1714283 29
-5.8215723 -3.2824941 -1.2910936 34
-6.1000252 -5.1270618 -1.2551752 33
-4.3385296 -2.4418764 -1.3227808 26
-4.4120617 -3.7131925 -1.3222741 28
-18.40605 -10.339655 4.8620129 16
nan nan nan 0
-20.444118 -11.488974 3.7045832 15
-17.914251 -15.036484 4.5352697 13
-20.440996 -11.477827 2.0479422 18
-18.334696 -15.340542 2.9267912 11
-20.434847 -11.464988 0.40838629 13
-18.376411 -15.34279 1.2527919 41
-16.613678 -9.3139019 -0.99634576 6
-15.32957 -12.793406 -0.34791371 29
-8.6970005 -4.8707423 -1.2178738 25
-10.302924 -8.5933762 -1.168384 29
-5.8351369 -3.2633498 -1.2915701 33
-6.1216741 -5.1089029 -1.2559564 35
-4.3406992 -2.423188 -1.3208423 29
-4.4362049 -3.7071507 -1.3256459 26
-18.414028 -10.255532 4.8541455 21
nan nan nan 0
-20.499033 -11.421177 3.7069273 1
-17.927767 -14.936155 4.5247846 13
nan nan nan 0
-18.379347 -15.263725 2.9249659 10
-20.579588 -11.451919 0.41048056 13
-18.410641 -15.262614 1.2514836 40
-16.622084 -9.2425089 -0.99490654 6
-15.316403 -12.691957 -0.34660476 33
-8.618494 -4.7873559 -1.2044872 28
-10.309846 -8.53829 -1.1657746 28
-5.8363252 -3.2359939 -1.2891872 31
-6.1365576 -5.0832796 -1.2551752 33
-4.3512444 -2.4091902 -1.3214884 26
-4.4453716 -3.6885288 -1.324522 28
-18.417727 -10.173529 4.845716 25
nan nan nan 0
-20.540937 -11.350746 3.7073181 1
-17.94009 -14.840627 4.5147762 15
nan nan nan 0
-18.422943 -15.19158 2.9234445 11
nan nan nan 0
-18.459949 -15.195083 1.2512218 41
-16.628008 -9.1699648 -0.99333638 4
-15.325876 -12.609819 -0.34581938 25
-8.8220854 -4.8601804 -1.2306519 28
-10.331895 -8.4959192 -1.1649047 28
-5.8475857 -3.2156017 -1.2891872 33
-6.1599822 -5.0665369 -1.2563472 33
-4.3553934 -2.391664 -1.3201962 28
-4.4563413 -3.6714387 -1.3239601 28
-18.431761 -10.097474 4.8400965 29
nan nan nan 0
-20.52846 -11.250498 3.697942 1
-17.951965 -14.745194 4.5047679 13
nan nan nan 0
-18.459784 -15.119395 2.921315 11
nan nan nan 0
-18.497414 -15.117909 1.2501751 44
-16.627058 -9.0938997 -0.99137378 4
-15.280771 -12.483479 -0.34381238 33
-8.819397 -4.8186512 -1.2279137 25
-10.351846 -8.4519243 -1.1638174 28
-5.8495979 -3.1914935 -1.2872808 33
-6.19204 -5.0585876 -1.2594724 34
-4.3637156 -2.3764462 -1.3201962 28
-4.471014 -3.6574047 -1.324522 29
-18.430899 -10.017688 4.8311057 33
nan nan nan 0
-20.585182 -11.192976 3.7014582 1
-17.957035 -14.649894 4.4938064 13
nan nan nan 0
-18.498974 -15.043904 2.9191852 11
nan nan nan 0
-18.53388 -15.04547 1.2492592 44
-16.63518 -9.0268078 -0.9900654 4
-15.279613 -12.393838 -0.34280887 33
-8.8418732 -4.7929249 -1.2288264 28
-10.366279 -8.4065638 -1.1622952 26
-5.8736558 -3.1780586 -1.2901404 33
-6.2230783 -5.0478392 -1.2622069 33
-4.3741093 -2.3623462 -1.3208423 30
-4.4755597 -3.6364071 -1.3222741 29
-18.444307 -9.9417343 4.8254857 36
-19.88492 -16.165562 6.8478308 1
-20.591524 -11.103476 3.6955984 2
-17.973742 -14.559311 4.4852276 13
nan nan nan 0
-18.53014 -14.962088 2.9158387 11
nan nan nan 0
-18.566851 -14.965014 1.2479508 43
-16.666586 -8.9686852 -0.9900654 6
-15.289694 -12.313766 -0.34206715 34
-8.8672934 -4.7667303 -1.2300434 29
-10.369865 -8.3466415 -1.1592509 28
-5.8803868 -3.1552172 -1.2891872 30
-6.2579608 -5.0400362 -1.2657228 34
-4.3780704 -2.3447847 -1.3195499 30
-4.4850678 -3.6169178 -1.3211503 29
-18.440228 -9.8566236 4.8153706 39
-19.928074 -16.085434 6.843307 1
-20.604025 -11.017559 3.6909103 2
-17.984301 -14.464173 4.4752192 14
nan nan nan 0
-18.564835 -14.883342 2.9131005 11
nan nan nan 0
-18.61183 -14.889061 1.2472966 44
-16.705957 -8.9110632 -0.99045789 4
-15.275981 -12.215036 -0.34080186 40
-8.9175558 -4.7516947 -1.234607 28
-10.358092 -8.2777281 -1.1546843 29
-5.8848643 -3.1312151 -1.2877574 30
-6.2851543 -5.0258775 -1.2676762 35
-4.3904953 -2.3317518 -1.3208423 29
-4.4919648 -3.5966673 -1.3194644 29
-18.456856 -9.7787094 4.8103132 38
-19.845558 -15.899011 6.7948413 3
nan nan nan 0
-17.99884 -14.367532 4.4656873 15
nan nan nan 0
-18.605026 -14.809174 2.9112749 13
-24.24592 -12.834284 0.47823957 1
-18.646097 -14.810025 1.246119 46
-16.719303 -8.8433571 -0.98941118 4
-15.302866 -12.1492 -0.34045279 40
-8.9604197 -4.7344437 -1.2382579 29
-10.410328 -8.2601042 -1.1572937 28
-5.9087844 -3.1175218 -1.290617 30
-6.3142576 -5.0131259 -1.27002 35
-4.4007449 -2.3175364 -1.3214884 30
-4.5044923 -3.5809658 -1.3194644 26
-18.458992 -9.7015867 4.8024459 35
-19.896282 -15.831609 6.7941957 4
nan nan nan 0
-18.00024 -14.271165 4.4542489 15
nan nan nan 0
-18.646873 -14.736444 2.9097538 13
-24.334824 -12.778212 0.47915581 1
-18.681387 -14.737284 1.2452031 46
-16.72864 -8.7774286 -0.98823369 4
-15.323593 -12.078683 -0.33997285 40
-8.9958534 -4.7150683 -1.2409961 28
-10.433752 -8.2224531 -1.1568588 28
-5.9065814 -3.0900548 -1.2877574 31
-6.3336563 -4.9925847 -1.2704108 35
-4.4066668 -2.3010437 -1.3208423 28
-4.5086994 -3.5599639 -1.3172165 26
-18.468981 -9.624712 4.7962642 35
nan nan nan 0
nan nan nan 0
-18.019096 -14.183952 4.4466233 16
nan nan nan 0
-18.678682 -14.655946 2.9067116 13
-24.536699 -12.775137 0.48225361 1
-18.722891 -14.664285 1.2445489 48
-16.750319 -8.7143736 -0.9877103 4
-15.342043 -12.006627 -0.33944929 38
-9.0122566 -4.6836376 -1.2409961 26
-10.459897 -8.1810865 -1.1564239 28
-5.9216886 -3.071677 -1.2887106 30
-6.3724265 -4.9871979 -1.274708 35
-4.4103818 -2.2834289 -1.3195499 28
-4.523634 -3.544919 -1.3177785 29
-18.472162 -9.5445318 4.7883968 33
nan nan nan 0
-20.714167 -10.707268 3.6834881 2
-18.029831 -14.090736 4.4370914 13
nan nan nan 0
-18.721897 -14.584554 2.9054945 11
-24.643333 -12.716063 0.48343161 1
-18.772572 -14.592499 1.2442874 1
-16.768829 -8.6460581 -0.9869253 6
-15.32663 -11.908513 -0.33818397 41
-9.0006809 -4.6358099 -1.2370409 26
-10.486423 -8.1429968 -1.1562065 28
-5.92801 -3.0487442 -1.2877574 31
-6.3917446 -4.9664402 -1.2750986 36
-4.4118786 -2.2647135 -1.3176112 26
-4.5359797 -3.5291071 -1.3177785 28
-18.489674 -9.4678831 4.7839012 33
nan nan nan 0
-20.720304 -10.614389 3.677628 2
-18.044514 -13.995972 4.4280362 14
nan nan nan 0
-18.755028 -14.505445 2.9027562 11
nan nan nan 0
nan nan nan 0
-16.794462 -8.5851984 -0.98666352 4
-15.348317 -11.839667 -0.33774766 29
-9.0168085 -4.604363 -1.2370409 25
-10.532532 -8.1200342 -1.1581635 26
-5.9298692 -3.0235765 -1.285851 31
-6.4266305 -4.9576821 -1.2786145 38
-4.4154515 -2.2471101 -1.3163188 26
-4.5444179 -3.5102706 -1.3166547 26
-18.497078 -9.3943853 4.77772 31
nan nan nan 0
-20.753187 -10.544502 3.6772375 2
-18.05195 -13.906097 4.4185042 18
nan nan nan 0
-18.799644 -14.435356 2.9018435 13
nan nan nan 0
nan nan nan 0
-16.796118 -8.515914 -0.98509353 6
-15.449077 -11.83163 -0.33905661 19
-9.0342407 -4.5755572 -1.2373451 24
-10.511954 -8.0487089 -1.1529447 28
-5.9184818 -2.9917936 -1.281085 28
-6.4438972 -4.9352193 -1.2786145 35
-4.4275818 -2.2338579 -1.3176112 23
-4.5637598 -3.5011187 -1.3189024 25
-18.503647 -9.316618 4.7709765 30
nan nan nan 0
-20.66416 -10.408689 3.6549702 6
-18.069197 -13.819138 4.4108787 19
nan nan nan 0
-18.836107 -14.359112 2.899714 11
nan nan nan 0
nan nan nan 0
-16.814587 -8.4516277 -0.98443931 4
-15.534049 -11.810924 -0.34001648 20
-9.0346327 -4.5362034 -1.2352154 23
-10.567156 -8.0297232 -1.1557715 28
-5.9201117 -2.9667206 -1.2791787 31
-6.4709082 -4.9201741 -1.2805678 34
-4.4267111 -2.2140715 -1.3150265 28
-4.5765615 -3.4843683 -1.3189024 25
-18.509899 -9.2389183 4.7642331 34
nan nan nan 0
-20.660601 -10.316641 3.6479383 13
-18.076283 -13.724806 4.4008703 23
nan nan nan 0
-18.876223 -14.285784 2.8981926 13
nan nan nan 0
-18.932653 -14.297368 1.2415397 20
-16.834276 -8.3843775 -0.98378503 6
-15.543268 -11.732525 -0.33931839 23
-9.0578632 -4.5063734 -1.2361281 21
-10.547415 -7.9567747 -1.1505526 28
-5.9282331 -2.9449465 -1.2787021 30
-6.495924 -4.9035115 -1.2821304 36
-4.4365764 -2.1996775 -1.3156726 28
-4.5925803 -3.4713128 -1.3200264 25
-18.528351 -9.163456 4.7602992 34
nan nan nan 0
-20.720407 -10.251795 3.6518447 3
-18.09511 -13.634826 4.3932447 25
nan nan nan 0
-18.916553 -14.20756 2.8963673 11
-20.749149 -10.25248 0.40336871 41
-18.958475 -14.213218 1.2399696 48
-16.865683 -8.3266706 -0.98391593 6
-15.542129 -11.64671 -0.33840212 29
-9.0535088 -4.4648547 -1.2333901 21
-10.601033 -7.9393253 -1.1533796 28
-5.9544024 -2.9307804 -1.2820382 30
-6.509902 -4.8767071 -1.2813491 36
-4.4398923 -2.182049 -1.3143803 29
-4.6105113 -3.459651 -1.3217121 25
-18.533974 -9.0858593 4.7535558 29
nan nan nan 0
-20.751631 -10.17723 3.6510637 2
-18.105263 -13.543641 4.3841896 25
nan nan nan 0
-18.944151 -14.125122 2.8930206 13
-20.816238 -10.195378 0.40397954 11
-18.99596 -14.138009 1.2391846 48
-16.88343 -8.2622614 -0.98326176 6
-15.514513 -11.541645 -0.33691871 35
-9.1225471 -4.4593687 -1.2406918 23
-10.580728 -7.8665938 -1.1481607 29
-5.9668021 -2.9110532 -1.2825149 29
-6.5466905 -4.8687 -1.2852556 35
-4.4453101 -2.1654809 -1.3137341 29
-4.6245117 -3.4449933 -1.3222741 25
-18.55024 -9.0136576 4.7496223 30
nan nan nan 0
-20.7626 -10.092858 3.6467664 2
-18.114998 -13.45255 4.375134 23
nan nan nan 0
-18.980921 -14.05484 2.8914995 11
-20.802227 -10.098641 0.40301967 3
-19.023111 -14.055291 1.2377453 46
-16.900936 -8.1978302 -0.98260754 6
-15.57481 -11.502273 -0.33735499 34
-9.1157246 -4.4166822 -1.2376494 25
-10.624148 -7.8414483 -1.1499003 29
-5.9963088 -2.9008639 -1.2868042 33
-6.5667706 -4.8498998 -1.2860368 35
-4.4528422 -2.1499505 -1.3137341 33
-4.6443391 -3.4346302 -1.324522 26
-18.555887 -8.940464 4.7434406 30
nan nan nan 0
-20.760365 -10.0068 3.6405158 2
-18.118036 -13.361807 4.3651257 21
nan nan nan 0
-19.017868 -13.979675 2.8896739 11
-20.80407 -10.014428 0.40240884 3
-19.059551 -13.984743 1.2370911 48
-16.932529 -8.1439028 -0.98286915 6
-15.620911 -11.452271 -0.33748588 39
-9.1034765 -4.3735394 -1.2339984 23
-10.634027 -7.7943912 -1.1481607 30
-6.0063977 -2.8799152 -1.2868042 31
-6.5975938 -4.8371758 -1.2887715 36
-4.4559622 -2.1323109 -1.3124416 31
-4.649817 -3.4148791 -1.322836 26
-18.571594 -8.8682909 4.7395072 30
nan nan nan 0
-20.826363 -9.9491711 3.6459849 2
-18.130911 -13.27383 4.3570237 26
nan nan nan 0
-19.062546 -13.91028 2.8890655 11
-20.825361 -9.9352913 0.40214705 3
-19.094128 -13.907835 1.2361752 45
-16.949585 -8.0793781 -0.98221505 6
-15.642639 -11.388633 -0.33713683 48
-9.0604324 -4.3140111 -1.2260883 23
-10.64305 -7.744029 -1.1462035 30
-6.0008955 -2.8515627 -1.2834681 31
-6.5884957 -4.7952127 -1.2836931 35
-4.4651909 -2.118557 -1.3130878 29
-4.6656427 -3.4015012 -1.3239601 26
-18.582617 -8.794034 4.7344499 29
-20.057983 -14.631496 6.6339369 1
-20.782848 -9.8394365 3.6323121 2
-18.139421 -13.18304 4.3479681 23
nan nan nan 0
-19.090891 -13.829094 2.8860233 11
-20.841837 -9.8539906 0.40179801 3
-19.130421 -13.832321 1.2353902 44
-16.950594 -8.00737 -0.98064494 6
-15.678246 -11.331033 -0.33704957 41
-9.1135883 -4.3003526 -1.2312603 24
-10.678091 -7.7126675 -1.1470734 31
-6.0130334 -2.8316429 -1.2839446 30
-6.5651793 -4.7432404 -1.2758799 34
-4.4834881 -2.1080914 -1.3163188 30
-4.6676269 -3.3780453 -1.3211503 25
-18.594872 -8.7165613 4.7293921 29
-20.041058 -14.506887 6.6106734 3
-20.814301 -9.7611017 3.6315308 2
-18.149805 -13.089185 4.3389134 20
nan nan nan 0
-19.128977 -13.755124 2.8845019 13
-20.846123 -9.7626963 0.40118715 3
-19.170849 -13.754832 1.234736 45
-16.954952 -7.9335523 -0.97920567 4
-15.731856 -11.282235 -0.33731136 43
-9.2034807 -4.3015795 -1.2413002 21
-10.696169 -7.6662202 -1.1459861 28
-5.998415 -2.7992277 -1.2787021 31
-6.6238165 -4.7505398 -1.2840836 33
-4.4868054 -2.089607 -1.3150265 29
-4.6859088 -3.3651824 -1.322836 26
-18.614838 -8.6507454 4.7271438 28
-20.083172 -14.43612 6.6087346 3
-20.817448 -9.6784954 3.6264522 2
-18.163183 -13.007486 4.3317642 25
nan nan nan 0
-19.172834 -13.685384 2.8838935 11
-20.860241 -9.6850939 0.40083811 4
-19.208223 -13.685388 1.2342126 45
-16.963049 -7.8688822 -0.97815901 6
-15.787431 -11.238853 -0.33766043 43
-9.2199459 -4.272079 -1.2416044 24
-10.691103 -7.609036 -1.1427243 26
-6.0170608 -2.7823896 -1.2806084 30
-6.6262841 -4.7173572 -1.2813491 31
-4.5094252 -2.0810101 -1.3195499 28
-4.6970425 -3.3496249 -1.322836 30
-18.625008 -8.5765467 4.7220864 29
nan nan nan 0
-20.810734 -9.5871754 3.6194205 2
-18.17448 -12.919827 4.3236623 24
nan nan nan 0
-19.206318 -13.60833 2.8817639 11
-20.862129 -9.5975962 0.40022728 4
-19.241613 -13.608162 1.2332968 45
-16.96319 -7.7971115 -0.9765889 6
-15.928618 -11.255826 -0.33984196 31
-9.2956944 -4.2678118 -1.2498189 21
-10.664005 -7.5309906 -1.136853 28
-6.0178113 -2.757283 -1.2787021 30
-6.6165042 -4.6756568 -1.2762705 34
-4.5122676 -2.0632496 -1.3182575 30
-4.7053127 -3.3295691 -1.3217121 26
-18.643749 -8.5064259 4.7192769 30
nan nan nan 0
-20.83284 -9.509347 3.6174672 2
-18.177362 -12.826583 4.3136535 21
nan nan nan 0
-19.245584 -13.535494 2.8805468 11
-20.876696 -9.5117435 0.3998346 4
-19.287273 -13.534678 1.2330351 45
-16.97575 -7.7276478 -0.97567302 6
-15.973949 -11.204464 -0.33997285 39
-9.3112736 -4.2337127 -1.2498189 24
-10.724889 -7.5180345 -1.1405497 29
-6.0251637 -2.7352462 -1.2782255 31
-6.6630964 -4.67382 -1.2821304 33
-4.5326433 -2.0534606 -1.3221346 30
-4.7149148 -3.311723 -1.3211503 28
-18.66148 -8.4320192 4.7159052 33
nan nan nan 0
-20.856302 -9.4278431 3.6155138 2
-18.194103 -12.738754 4.3065047 18
nan nan nan 0
-19.282541 -13.461126 2.8790255 13
-20.875593 -9.4233885 0.39918014 4
-19.318014 -13.455851 1.2319883 46
-16.988966 -7.6621876 -0.97488803 6
-16.029371 -11.160066 -0.3403219 43
-9.3418341 -4.2083163 -1.2519486 23
-10.757199 -7.4848228 -1.1412021 28
-6.0413899 -2.7172158 -1.2796552 30
-6.6732941 -4.646297 -1.2809585 33
-4.53758 -2.0366383 -1.3214884 28
-4.7364321 -3.3022184 -1.3239601 29
-18.684895 -8.3680992 4.7147813 35
nan nan nan 0
-20.849142 -9.3414679 3.6088727 2
-18.201996 -12.654528 4.2984023 23
nan nan nan 0
-19.319216 -13.386667 2.8775043 13
-20.886194 -9.3449259 0.39878747 4
-19.354317 -13.386033 1.231465 46
-17.012001 -7.6047888 -0.97475719 6
-16.092901 -11.121104 -0.34084547 39
-9.3240147 -4.163157 -1.2476892 23
-10.794251 -7.4576068 -1.1425068 26
-6.0373859 -2.6901217 -1.2767957 30
-6.6935325 -4.6257844 -1.2817397 35
-4.5512834 -2.0237279 -1.3234271 28
-4.7413507 -3.2823291 -1.3222741 29
-18.691721 -8.2929478 4.7091613 34
-18.670589 -12.932108 6.0678616 2
-20.854536 -9.2566147 3.6041849 2
-18.219801 -12.572788 4.2922068 19
nan nan nan 0
-19.351519 -13.309303 2.8753746 14
-20.895832 -9.2618351 0.39835113 6
-19.392693 -13.312739 1.2309415 45
-17.011047 -7.5332317 -0.97318703 6
-16.18121 -11.103045 -0.34193623 36
-9.2930994 -4.110518 -1.2416044 24
-10.832538 -7.4283376 -1.1438116 28
-6.0489855 -2.6700213 -1.2772723 30
-6.7238879 -4.6121774 -1.2844744 35
-4.5646005 -2.0115433 -1.3253658 26
-4.752779 -3.2657585 -1.3222741 28
-18.711634 -8.223731 4.7069135 35
-18.693729 -12.851803 6.0607533 2
-20.850554 -9.1678638 3.5979345 2
-18.225113 -12.482755 4.2831516 19
nan nan nan 0
-19.385563 -13.233277 2.8735492 40
-20.90057 -9.1767817 0.3978276 6
-19.426668 -13.236529 1.2301565 44
-17.039526 -7.4748087 -0.97331792 6
-16.281839 -11.088719 -0.34324518 41
-9.3505783 -4.0969667 -1.2473851 25
-10.89957 -7.4185205 -1.1481607 29
-6.0245347 -2.6341522 -1.2701234 29
-6.7460675 -4.5928507 -1.2856463 36
-4.5715938 -1.9955976 -1.3253658 26
-4.7661614 -3.2505229 -1.322836 29
-18.720125 -8.1496162 4.7018561 34
-18.692598 -12.755152 6.0458903 3
-20.871109 -9.0900974 3.5959811 2
-18.238134 -12.398359 4.2760029 26
nan nan nan 0
-19.421368 -13.158566 2.8720281 13
-20.91872 -9.0977879 0.39756578 8
-19.462414 -13.161642 1.2295024 45
-17.044905 -7.4063306 -0.97214031 6
-16.361717 -11.055568 -0.34407419 43
-9.3875875 -4.0741773 -1.2504275 25
-10.883352 -7.3492374 -1.1435941 29
-6.0697308 -2.6287014 -1.2777489 31
-6.7722845 -4.5761929 -1.2875996 35
-4.5810947 -1.9797857 -1.326012 30
-4.7699776 -3.2275653 -1.3205884 30
-18.737274 -8.0793991 4.6990461 36
-18.723015 -12.680342 6.0413671 3
-20.836958 -8.9888287 3.5846519 11
-18.250792 -12.314027 4.2688537 26
nan nan nan 0
-19.461002 -13.086536 2.8711152 13
-20.933559 -9.0131502 0.39721677 8
-19.510523 -13.09022 1.2295024 45
-17.065058 -7.3408508 -0.97174782 6
-16.497766 -11.063844 -0.34612486 35
-9.352294 -4.0182014 -1.2437341 25
-10.90894 -7.3112025 -1.1435941 29
-6.0698462 -2.6036308 -1.2758425 29
-6.790266 -4.5539012 -1.2879901 34
-4.5857573 -1.9628332 -1.3253658 30
-4.7852564 -3.2136142 -1.3217121 29
-18.744352 -8.0011082 4.6934271 40
-18.735292 -12.588729 6.0303817 4
-20.86068 -8.9085188 3.5830896 10
-18.261139 -12.223837 4.2607517 28
nan nan nan 0
-19.504503 -13.01715 2.8708112 13
-20.902809 -8.9135551 0.39603871 16
-19.543631 -13.01373 1.2287173 45
-17.072201 -7.2734108 -0.97070104 6
-16.596621 -11.046368 -0.34739012 39
-9.4005165 -4.0000992 -1.2482978 29
-10.932321 -7.271699 -1.1433766 29
-6.0721211 -2.5795505 -1.2744128 30
-6.8184505 -4.5383873 -1.2903341 34
-4.5948048 -1.9477556 -1.326012 33
-4.7964454 -3.1968911 -1.3217121 28
-18.75732 -7.9332132 4.6900554 40
-18.748814 -12.507762 6.0213351 4
-20.885557 -8.837369 3.5823083 2
-18.268873 -12.141471 4.2531261 25
nan nan nan 0
-19.535343 -12.939392 2.8686814 13
-20.994425 -8.8704519 0.39721677 25
-19.580433 -12.944718 1.2283249 45
-17.093927 -7.2157874 -0.97057027 8
-16.826931 -11.11516 -0.35140419 35
-9.4183025 -3.9708309 -1.2489063 24
-10.948064 -7.2299137 -1.1425068 29
-6.0788255 -2.5573881 -1.2739362 31
-6.8383703 -4.5172834 -1.2911154 34
-4.6038022 -1.9326386 -1.326658 29
-4.8151422 -3.186352 -1.3239601 29
-18.771418 -7.8620448 4.6866837 43
-18.758129 -12.419568 6.0103493 4
-20.893505 -8.7548695 3.5784016 3
-18.290663 -12.064111 4.2483602 26
nan nan nan 0
-19.576244 -12.868394 2.868073 11
-21.066769 -8.814477 0.39800212 13
-19.610888 -12.866702 1.227409 43
-17.093674 -7.1454854 -0.96913105 8
nan nan nan 0
-9.4641666 -3.9513092 -1.2531656 26
-10.970324 -7.1870074 -1.142072 29
-6.0990438 -2.5408688 -1.2763191 30
-6.8561606 -4.4947405 -1.2915061 34
-4.6149817 -1.9184091 -1.3279505 29
-4.8186464 -3.1633277 -1.3217121 28
-18.789745 -7.7927408 4.6844358 45
-18.771099 -12.334116 6.0006566 4
-20.907972 -8.6752615 3.5756671 3
-18.293652 -11.974643 4.239305 24
nan nan nan 0
-19.614809 -12.795914 2.8671603 11
-21.068909 -8.7247744 0.39743489 6
-19.65164 -12.79065 1.2270164 40
-17.112827 -7.0799232 -0.96873856 8
nan nan nan 0
-9.4992275 -3.9251196 -1.2559038 25
-10.993258 -7.1473117 -1.1418544 28
-6.0942626 -2.5139527 -1.2734596 29
-6.875946 -4.4734759 -1.2922873 35
-4.6305847 -1.9059615 -1.3305354 28
-4.83986 -3.1531456 -1.324522 26
-18.797897 -7.7154975 4.679378 43
-18.787861 -12.246764 5.9916096 3
-20.93049 -8.594821 3.5741045 3
-18.310665 -11.890133 4.2331095 28
nan nan nan 0
-19.657412 -12.721241 2.8665519 11
-21.071482 -8.6397991 0.39691135 6
-19.68568 -12.7152 1.2263622 40
-17.123575 -7.0144682 -0.96795344 6
-19.730776 -12.73946 -0.40934616 44
-9.5289478 -3.8985112 -1.2580335 28
-11.005585 -7.1007886 -1.1405497 29
-6.1079803 -2.493453 -1.2744128 30
-6.9005923 -4.4536047 -1.2938501 35
-4.6349726 -1.8888755 -1.3298892 24
-4.83039 -3.1229894 -1.3189024 26
-18.808918 -7.6434145 4.6754446 45
-18.798054 -12.160113 5.9812703 3
-20.948925 -8.5170574 3.5721509 3
-18.31493 -11.802208 4.2245307 24
nan nan nan 0
-19.693348 -12.64718 2.8653347 13
-21.087612 -8.5605526 0.39664954 6
-19.73415 -12.649102 1.2266239 41
-17.145641 -6.9537148 -0.96782267 8
-19.770916 -12.667811 -0.4092589 45
-9.4918966 -3.8447394 -1.2513402 29
-11.036595 -7.06636 -1.1412021 29
-6.1143708 -2.4711981 -1.2739362 31
-6.9140177 -4.4281573 -1.2934594 35
-4.650497 -1.8762957 -1.3324739 23
-4.8453608 -3.1087439 -1.3200264 26
-18.810621 -7.5677137 4.6692629 45
-18.818033 -12.080068 5.9741616 2
-20.964785 -8.4383497 3.5698073 2
-18.325006 -11.718367 4.2173815 24
nan nan nan 0
-19.718441 -12.571129 2.862901 13
-21.073299 -8.4691849 0.39582056 6
-19.763439 -12.570759 1.2257081 41
-17.165174 -6.8919625 -0.96756095 8
-19.810797 -12.596038 -0.40917164 44
-9.4914398 -3.8060448 -1.2495148 29
-11.021262 -7.0024009 -1.1370704 25
-6.1202536 -2.4499969 -1.2734596 34
-6.947412 -4.41714 -1.2969754 34
-4.6525326 -1.8582613 -1.3311816 23
-4.8397522 -3.0813313 -1.3155308 29
-18.817511 -7.4980817 4.6647673 40
-18.827442 -11.998122 5.9644685 2
-20.9743 -8.3614683 3.5666819 3
-18.328548 -11.635167 4.2092795 25
nan nan nan 0
-19.762201 -12.502223 2.862901 13
-21.043207 -8.3761511 0.39472979 23
-19.802906 -12.503819 1.2255772 41
-17.192577 -6.8368487 -0.96782267 8
-19.831394 -12.512132 -0.4086917 44
-9.5316858 -3.7855349 -1.2531656 28
-11.054955 -6.9724617 -1.1381577 26
-6.1264868 -2.4277148 -1.272983 33
-6.9627886 -4.3928623 -1.2969754 33
-4.6612372 -1.8428967 -1.3318278 26
-4.8499436 -3.0652654 -1.3155308 30
-18.827703 -7.426095 4.6608334 43
-18.848801 -11.919416 5.9580069 1
-20.975796 -8.2773285 3.5619943 3
-18.339983 -11.552798 4.2026072 25
nan nan nan 0
-19.797316 -12.427883 2.8616838 13
-20.997898 -8.2733307 0.39333361 90
-19.835855 -12.427987 1.224923 43
-17.209364 -6.7740502 -0.96743006 8
-19.874949 -12.44283 -0.4086917 44
-9.5240555 -3.7440734 -1.2504275 30
-11.109988 -6.9503999 -1.1412021 26
-6.1349239 -2.4063146 -1.272983 33
-6.9613414 -4.3580384 -1.2938501 35
-4.6631427 -1.8248565 -1.3305354 25
-4.8528938 -3.0422864 -1.3132828 28
-18.839897 -7.3550162 4.6574621 41
-18.849384 -11.827868 5.9450827 1
-20.98386 -8.1959753 3.5584781 3
-18.353148 -11.471794 4.1964111 23
nan nan nan 0
-19.832153 -12.353454 2.860467 13
-21.100277 -8.2244482 0.39468616 31
-19.874912 -12.351248 1.2245305 41
-17.229425 -6.7091184 -0.96716845 6
-19.91189 -12.369421 -0.40856081 43
-9.5608435 -3.7181304 -1.2534699 26
-11.115142 -6.8997478 -1.139245 26
-6.1455741 -2.3857727 -1.2734596 31
-6.976511 -4.3337126 -1.2938501 35
-4.6762409 -1.8111817 -1.3324739 26
-4.8634839 -3.0253284 -1.3132828 28
-18.848547 -7.2788954 4.6529665 43
-18.87211 -11.745939 5.938621 1
-20.997635 -8.1127825 3.5557437 3
-18.359615 -11.382459 4.1883092 24
nan nan nan 0
-19.864603 -12.277626 2.8589458 14
-21.040234 -8.1165667 0.39302814 93
-19.917904 -12.281796 1.2245305 44
-17.243422 -6.6453457 -0.96664506 6
-19.954948 -12.29984 -0.40856081 45
-9.5714464 -3.6838431 -1.2531656 28
-11.156119 -6.8713613 -1.1409847 26
-6.160738 -2.3669448 -1.2748893 31
-6.9747858 -4.2989593 -1.2907249 33
-4.6870456 -1.7965748 -1.3337663 24
-4.8574395 -2.9980838 -1.3087872 25
-18.865755 -7.2137423 4.6512804 44
-18.878086 -11.662975 5.9282813 1
-21.003666 -8.0351686 3.552228 3
-18.372183 -11.306072 4.18259 23
nan nan nan 0
-19.903107 -12.205615 2.8583372 13
-21.148766 -8.07796 0.39455527 20
-19.947878 -12.20916 1.2238764 49
-17.256031 -6.584568 -0.96612167 6
-19.989233 -12.224891 -0.40838629 46
-9.5696964 -3.6467834 -1.2513402 25
-11.172471 -6.8304286 -1.1403323 28
-6.171257 -2.3462968 -1.2753659 31
-7.0023842 -4.2823229 -1.2930686 35
-4.6887712 -1.7784917 -1.3324739 26
-4.8652782 -2.980685 -1.3082253 26
-18.877151 -7.142673 4.6479087 44
-18.877508 -11.571755 5.9153576 6
-21.026964 -7.9600549 3.5514464 3
-18.378029 -11.221403 4.1749649 25
nan nan nan 0
-19.943472 -12.134775 2.8580329 13
-21.162804 -7.9987855 0.39429346 8
-19.992506 -12.14075 1.2240071 49
-17.283583 -6.5260568 -0.9663834 8
-20.029661 -12.158537 -0.40838629 48
-9.561471 -3.6054814 -1.248602 25
-11.189859 -6.7875109 -1.1396799 28
-6.1748152 -2.323014 -1.2744128 31
-7.0109587 -4.2540078 -1.2918968 33
-4.701427 -1.7654778 -1.3344126 26
-4.883976 -2.9687521 -1.3104732 24
-18.892841 -7.0733209 4.6456609 43
-18.895092 -11.491982 5.9082489 4
-20.999126 -7.8658257 3.5420706 3
-18.387703 -11.139376 4.1682925 24
nan nan nan 0
-19.983585 -12.063804 2.857729 13
-21.136745 -7.9047318 0.39328995 8
-20.021936 -12.063156 1.2232221 48
-17.287548 -6.4586978 -0.96533668 8
-20.063414 -12.083385 -0.40821177 46
-9.5530729 -3.5642807 -1.2458639 28
-11.264686 -6.7792487 -1.1448988 28
-6.1943865 -2.3057227 -1.2767957 33
-7.0151916 -4.2231355 -1.2899436 33
-4.6985044 -1.745695 -1.3318278 30
-4.9005642 -2.9554651 -1.3121591 24
-18.898079 -6.9964175 4.6406035 41
-18.939154 -11.423897 5.908895 1
-21.023184 -7.7870922 3.5412896 3
-18.407373 -11.059263 4.1635265 25
nan nan nan 0
-20.017061 -11.988873 2.8565118 11
-21.167921 -7.8280754 0.39333361 9
-20.063873 -11.988411 1.2230912 45
-17.308762 -6.3944273 -0.96520579 8
-20.098986 -12.00464 -0.40803725 48
-9.5474472 -3.5223753 -1.2434299 28
-11.28732 -6.736639 -1.1446815 28
-6.1885786 -2.279002 -1.2739362 34
-7.0595593 -4.2163649 -1.2954127 33
-4.6958027 -1.7251347 -1.3292429 30
-4.9239011 -2.9449964 -1.3155308 25
-18.909739 -6.9295211 4.6377935 43
-18.923065 -11.328767 5.8920941 1
-21.01643 -7.7054358 3.53582 4
-18.410225 -10.978044 4.155901 23
nan nan nan 0
-20.04812 -11.912587 2.8549905 29
-21.182026 -7.7535419 0.39311543 11
-20.094927 -11.916715 1.2225678 48
-17.318148 -6.3327088 -0.96455169 6
-20.136469 -11.931861 -0.40794998 46
-9.5264406 -3.4787848 -1.2391706 25
-11.28389 -6.6839323 -1.142072 28
-6.1941895 -2.2565463 -1.2734596 33
-7.0084009 -4.1526389 -1.2833023 30
-4.6972556 -1.7070848 -1.3279505 31
-4.9399214 -2.9323874 -1.3172165 26
-18.908621 -6.854342 4.6316123 44
-18.993635 -11.281149 5.9017868 1
-21.036236 -7.6295028 3.5346482 10
-18.42309 -10.898712 4.1501822 21
nan nan nan 0
-20.085308 -11.840013 2.8543823 20
-21.154902 -7.6599855 0.3921119 11
-20.125647 -11.840166 1.2219137 48
-17.321365 -6.2654271 -0.96350491 6
-20.16946 -11.861217 -0.40781909 49
-9.5245209 -3.4404547 -1.2373451 26
-11.262069 -6.6179895 -1.1375054 26
-6.2228112 -2.2423928 -1.2777489 33
-7.0207257 -4.1268973 -1.2829118 33
-4.6983447 -1.6898657 -1.326658 31
-4.945931 -2.9126506 -1.3160927 29
-18.920963 -6.7841859 4.6288023 44
-18.995451 -11.192703 5.8901553 1
-20.967443 -7.5218492 3.5186315 18
-18.42716 -10.814454 4.1425562 21
nan nan nan 0
-20.126514 -11.76983 2.8543823 14
-21.113264 -7.5616589 0.39084661 31
-20.158228 -11.764807 1.2213904 48
-17.34078 -6.2040854 -0.96337408 6
-20.204266 -11.786959 -0.40768817 48
-9.5177784 -3.4005117 -1.2349112 26
-11.289403 -6.5811472 -1.1379403 28
-6.2352242 -2.2223039 -1.2787021 29
-7.0329552 -4.1011195 -1.282521 31
-4.6996636 -1.6718382 -1.3253658 29
-4.9455557 -2.8892157 -1.3132828 29
-18.923864 -6.7107735 4.623745 44
-18.915575 -11.056835 5.8533216 1
-21.042444 -7.4659481 3.5268352 3
-18.44359 -10.737714 4.1377907 24
nan nan nan 0
-20.152454 -11.690784 2.8522525 13
-21.170164 -7.4987617 0.39141384 33
-20.199171 -11.69437 1.2213904 45
-17.350563 -6.1393542 -0.96271992 6
-20.258148 -11.71909 -0.40790635 46
-9.5272503 -3.3664415 -1.234607 26
-11.274644 -6.5172768 -1.1340261 29
-6.2522025 -2.2037859 -1.2806084 28
nan nan nan 0
-4.7012029 -1.6530015 -1.3240733 26
-4.9455776 -2.8649559 -1.3104732 29
-18.931084 -6.6390343 4.6198111 45
nan nan nan 0
-21.033422 -7.3801904 3.5209754 3
-18.449087 -10.654851 4.1306415 19
nan nan nan 0
-20.197439 -11.622844 2.8528609 13
-21.202225 -7.4227695 0.39150107 46
-20.244064 -11.621501 1.2215213 46
-17.344666 -6.0658326 -0.96114981 6
-20.296762 -11.647058 -0.40786269 48
-9.478611 -3.3102396 -1.2266967 25
-11.258443 -6.4555674 -1.1301119 29
-6.264493 -2.1835628 -1.2815616 30
nan nan nan 0
-4.6955366 -1.6326197 -1.3208423 30
-4.9513254 -2.8452439 -1.3093492 29
-18.932274 -6.5616288 4.614192 44
nan nan nan 0
-21.078997 -7.3095198 3.5241005 3
-18.468849 -10.576181 4.1263523 19
nan nan nan 0
-20.237888 -11.552271 2.8528609 13
-21.218557 -7.3454456 0.39132655 19
-20.288845 -11.553237 1.2217828 46
-17.382252 -6.0109615 -0.9620657 6
-20.32209 -11.567479 -0.40755728 48
-9.4760342 -3.2722759 -1.2248713 25
-11.280909 -6.4162288 -1.1301119 26
-6.2859993 -2.166476 -1.2844212 33
nan nan nan 0
-4.7034907 -1.6170036 -1.3214884 30
-4.9548812 -2.8243194 -1.3076633 31
-18.944712 -6.4956517 4.6119442 45
nan nan nan 0
-21.096115 -7.2371764 3.5229287 3
-18.46542 -10.493045 4.1177735 20
nan nan nan 0
-20.291044 -11.488895 2.8546863 9
-21.228609 -7.2701831 0.39106476 20
-20.322699 -11.483436 1.2215213 38
-17.338308 -5.9314747 -0.95853305 6
-20.355818 -11.492784 -0.40742639 43
-9.4492607 -3.2280068 -1.2200035 24
-11.291283 -6.3726606 -1.1290246 26
-6.2981696 -2.1461022 -1.2853744 34
nan nan nan 0
-4.7091064 -1.6005756 -1.3214884 30
-4.9705777 -2.8114758 -1.3093492 29
-18.955732 -6.4255729 4.6091342 44
nan nan nan 0
-21.095526 -7.1547713 3.5186315 3
-18.478418 -10.415263 4.1125312 24
nan nan nan 0
-20.437029 -11.477555 2.8695941 4
-21.253857 -7.1960378 0.39106476 18
